ply
format ascii 1.0
element vertex 810
property float x
property float y
property float z
end_header
-40.3579597473144531 2.28936767578125 2.25
-40.8569526672363281 1.27423393726348877 2.25
-41.4892845153808594 0.933414101600646973 2.25
-40.712310791015625 1.41305184364318848 2.25
-41.4571495056152344 1.00985145568847656 2.25
-40.5156822204589844 2.01926708221435547 2.25
-40.6642837524414062 1.31465816497802734 2.25
-41.1507759094238281 1.43100142478942871 2.25
-41.4504241943359375 0.979345738887786865 2.25
-40.4158821105957031 2.1997525691986084 2.25
-41.0486259460449219 1.4558490514755249 2.25
-40.4789466857910156 0.914067327976226807 2.25
-40.39599609375 2.22017168998718262 2.25
-41.2984161376953125 0.940535008907318115 2.25
-41.0599937438964844 1.17912101745605469 2.25
-40.226409912109375 1.41821789741516113 2.25
-41.0970039367675781 1.35015439987182617 2.25
-40.8117485046386719 1.29384279251098633 2.25
-40.3192100524902344 1.59945225715637207 2.25
-40.3755264282226562 2.03973650932312012 2.25
-40.2286911010742188 0.957429587841033936 2.25
-40.1974601745605469 2.37844634056091309 2.25
-40.8157958984375 1.02291417121887207 2.25
-41.3255844116210938 1.24056577682495117 2.25
-40.6532173156738281 1.52278280258178711 2.25
-41.4630699157714844 1.04246687889099121 2.25
-40.3801612854003906 1.37377297878265381 2.25
-40.2910270690917969 1.35051631927490234 2.25
-40.8137969970703125 0.977250456809997559 2.25
-40.2674217224121094 1.56721758842468262 2.25
-40.5804634094238281 1.13897204399108887 2.25
-41.453338623046875 0.935893774032592773 2.25
-40.5699119567871094 1.5483710765838623 2.25
-41.160430908203125 1.11912775039672852 2.25
-40.2975616455078125 1.24579274654388428 2.25
-40.8821945190429688 1.5525510311126709 2.25
-40.8911819458007812 1.605155348777771 2.25
-40.5018196105957031 1.03708255290985107 2.25
-40.9530906677246094 1.19135880470275879 2.25
-40.8781929016113281 1.70378291606903076 2.25
-40.6373062133789062 1.73295176029205322 2.25
-40.9335212707519531 1.23534393310546875 2.25
-40.5975761413574219 1.72164511680603027 2.25
-40.2191505432128906 1.1152111291885376 2.25
-40.4061965942382812 2.08034443855285645 2.25
-41.0106658935546875 1.56046271324157715 2.25
-40.7017898559570312 1.037139892578125 2.25
-40.9877548217773438 1.61503505706787109 2.25
-41.1153793334960938 1.47067785263061523 2.25
-41.3232040405273438 0.923242151737213135 2.25
-40.7218284606933594 1.61910140514373779 2.25
-40.8354530334472656 1.56094086170196533 2.25
-40.6403770446777344 1.58466243743896484 2.25
-40.6525459289550781 0.923847556114196777 2.25
-40.7201652526855469 1.69714605808258057 2.25
-40.6649932861328125 1.53591418266296387 2.25
-40.7067222595214844 1.52319872379302979 2.25
-40.5395889282226562 1.48541975021362305 2.25
-40.34765625 0.900390923023223877 2.25
-40.3463973999023438 2.09766149520874023 2.25
-40.4126663208007812 1.61222624778747559 2.25
-40.7040023803710938 1.2433173656463623 2.25
-40.43426513671875 1.88395905494689941 2.25
-41.3486709594726562 1.11939871311187744 2.25
-40.7611656188964844 1.40788698196411133 2.25
-41.1447334289550781 1.25566673278808594 2.25
-41.0148963928222656 1.57729744911193848 2.25
-45.1027145385742188 2.50416231155395508 0
-45.1143302917480469 2.497650146484375 0
-44.967437744140625 2.52149510383605957 0
-44.9463729858398438 2.50155162811279297 0
-45.3136062622070312 2.53041386604309082 0.113744601607322693
-45.3136062622070312 2.52475142478942871 0.0349771715700626373
-44.7169609069824219 2.52310609817504883 0.573319673538208008
-44.281982421875 2.52562236785888672 0.824268996715545654
-43.2985382080078125 2.50702214241027832 1.3916398286819458
-45.0445671081542969 2.53223538398742676 0.384315073490142822
-45.1998062133789062 2.52764058113098145 0.294754862785339355
-43.9471244812011719 2.5170586109161377 1.01745688915252686
-44.5426368713378906 2.49840807914733887 0.673892498016357422
-44.2159347534179688 2.51879787445068359 0.862373113632202148
-44.5058250427246094 2.52513623237609863 0.695129752159118652
-44.9469833374023438 2.53217482566833496 0.440613269805908203
-42.1985054016113281 2.49802303314208984 2.02627420425415039
-42.1149024963378906 2.49677085876464844 2.07450556755065918
-44.16693115234375 2.52457618713378906 0.890645146369934082
-42.1135330200195312 2.50987839698791504 2.07529759407043457
-42.4290084838867188 2.53075933456420898 1.89329230785369873
-41.8021583557128906 2.51059126853942871 2.25493669509887695
-42.6097908020019531 2.5396418571472168 1.78899526596069336
-41.8757781982421875 2.49718570709228516 2.2124629020690918
-44.4122886657714844 2.53271389007568359 0.74909210205078125
-42.1947288513183594 2.51102280616760254 2.02845382690429688
-42.2697181701660156 2.50815916061401367 1.985190749168396
-42.614654541015625 2.5047304630279541 1.78618764877319336
-43.9771499633789062 2.53478288650512695 1.00013244152069092
-42.9687957763671875 2.51310539245605469 1.58187544345855713
-41.8055953979492188 2.518707275390625 2.25295209884643555
-43.9100914001464844 2.53732037544250488 1.03882050514221191
-45.2569236755371094 2.5417020320892334 0.166258856654167175
-45.1907196044921875 2.5417020320892334 0.0762779712677001953
-45.0551719665527344 2.5417020320892334 0.0192874744534492493
-45.2735328674316406 2.5417020320892334 0.0069530378095805645
-45.076416015625 2.5417020320892334 0.0852220281958580017
-45.2279472351074219 2.5417020320892334 0.136888608336448669
-44.94378662109375 2.5417020320892334 0.0564761161804199219
-43.5892257690429688 2.5417020320892334 1.05744469165802002
-43.0788383483886719 2.5417020320892334 1.32715511322021484
-43.9579620361328125 2.5417020320892334 0.989188790321350098
-44.8447837829589844 2.5417020320892334 0.32001030445098877
-42.1353530883789062 2.5417020320892334 2.02738404273986816
-44.3960151672363281 2.5417020320892334 0.59603273868560791
-44.9721260070800781 2.5417020320892334 0.379241943359375
-43.856903076171875 2.5417020320892334 0.894633352756500244
-43.821014404296875 2.5417020320892334 0.854979515075683594
-44.2319564819335938 2.5417020320892334 0.683432877063751221
-45.0856704711914062 2.5417020320892334 0.159025907516479492
-44.31292724609375 2.5417020320892334 0.466037184000015259
-43.0901107788085938 2.5417020320892334 1.48262786865234375
-43.8720054626464844 2.5417020320892334 0.857453584671020508
-44.1610183715820312 2.5417020320892334 0.730270624160766602
-43.6054420471191406 2.5417020320892334 1.00220739841461182
-44.2783851623535156 2.5417020320892334 0.678467035293579102
-44.231903076171875 2.5417020320892334 0.68308722972869873
-44.0989494323730469 2.5417020320892334 0.721322774887084961
-45.0992240905761719 2.5417020320892334 0.240053653717041016
-44.3673934936523438 2.5417020320892334 0.66530609130859375
-45.0674819946289062 2.5417020320892334 0.267699122428894043
-44.3269233703613281 2.5417020320892334 0.720399975776672363
-42.735809326171875 2.5417020320892334 1.64917027950286865
-43.1662101745605469 2.5417020320892334 1.31309032440185547
-43.389617919921875 2.5417020320892334 1.2245028018951416
-43.6376190185546875 2.5417020320892334 1.19235920906066895
-44.1253013610839844 2.5417020320892334 0.689092397689819336
-43.5061836242675781 2.5417020320892334 1.10520434379577637
-42.8769874572753906 2.5417020320892334 1.60429906845092773
-44.1844902038574219 2.5417020320892334 0.743337392807006836
-44.3965682983398438 2.5417020320892334 0.651172280311584473
-44.2786865234375 2.5417020320892334 0.497814148664474487
-44.3897323608398438 2.5417020320892334 0.700036883354187012
-43.0087699890136719 2.5417020320892334 1.54765105247497559
-43.8097457885742188 2.5417020320892334 1.0501103401184082
-42.3235206604003906 2.5417020320892334 1.94421374797821045
-43.74908447265625 2.5417020320892334 1.01835501194000244
-44.2446479797363281 2.5417020320892334 0.5031699538230896
-43.3121681213378906 2.5417020320892334 1.30326449871063232
-43.2986259460449219 2.5417020320892334 1.22831547260284424
-43.4925498962402344 2.5417020320892334 1.06138896942138672
-44.9928245544433594 2.5417020320892334 0.324616551399230957
-43.8844375610351562 2.5417020320892334 0.957475125789642334
-44.2938690185546875 2.5417020320892334 0.558059215545654297
-44.4638099670410156 2.5417020320892334 0.575960040092468262
-43.3485183715820312 2.5417020320892334 1.17984676361083984
-44.264190673828125 2.5417020320892334 0.537260055541992188
-44.0957527160644531 2.5417020320892334 0.670264601707458496
-44.3626899719238281 2.5417020320892334 0.642030775547027588
-44.7720718383789062 2.5417020320892334 0.28308570384979248
-44.2695465087890625 2.5417020320892334 0.656150460243225098
-43.3878707885742188 2.5417020320892334 1.1334456205368042
-44.8142585754394531 2.5417020320892334 0.312814533710479736
-42.9957008361816406 2.5417020320892334 1.52085375785827637
-42.6625862121582031 2.5417020320892334 1.66346657276153564
-44.2805328369140625 2.5417020320892334 0.535464823246002197
-43.8628082275390625 2.5417020320892334 0.824758648872375488
-42.3640327453613281 2.5417020320892334 1.89682769775390625
-45.1774101257324219 2.5417020320892334 0.193101406097412109
-44.5984725952148438 2.5417020320892334 0.619997382164001465
-42.3351249694824219 2.5417020320892334 1.91077303886413574
-44.2284431457519531 2.5417020320892334 0.799432277679443359
-42.9625205993652344 2.5417020320892334 1.41681718826293945
-43.1938705444335938 2.5417020320892334 1.30860769748687744
-44.7982406616210938 2.5417020320892334 0.101984240114688873
-44.2683639526367188 2.5417020320892334 0.519006729125976562
-44.8872299194335938 2.5417020320892334 0.467781424522399902
-44.9603691101074219 2.5417020320892334 0.377088308334350586
-42.6695175170898438 2.5417020320892334 1.65334141254425049
-43.304595947265625 2.5417020320892334 1.23422586917877197
-44.8579978942871094 2.5417020320892334 0.315047979354858398
-42.9621810913085938 2.5417020320892334 1.54644393920898438
-44.9728202819824219 2.5417020320892334 0.11765974760055542
-41.8787803649902344 2.5417020320892334 2.19499564170837402
-44.5390243530273438 2.5417020320892334 0.542733550071716309
-42.6715965270996094 2.5417020320892334 1.72194671630859375
-43.372100830078125 2.5417020320892334 1.13084232807159424
-45.1906852722167969 2.5417020320892334 0.171271800994873047
-44.09820556640625 2.5417020320892334 0.697277426719665527
-43.0400161743164062 2.5417020320892334 1.51931357383728027
-44.3810806274414062 2.5417020320892334 0.577419817447662354
-44.9714279174804688 2.5417020320892334 0.354130864143371582
-44.1477088928222656 2.5417020320892334 0.76704937219619751
-44.6294174194335938 2.5417020320892334 0.235379070043563843
-43.5790977478027344 2.5417020320892334 1.17842364311218262
-42.7559547424316406 2.5417020320892334 1.60859191417694092
-45.0279769897460938 2.5417020320892334 0.261637091636657715
-43.9197311401367188 2.5417020320892334 0.931157827377319336
-43.9048309326171875 2.5417020320892334 0.87855231761932373
-44.8547630310058594 2.5417020320892334 0.117608755826950073
-44.2723884582519531 2.5417020320892334 0.517515897750854492
-44.8351593017578125 2.5417020320892334 0.142961323261260986
-44.5568771362304688 2.5417020320892334 0.650003194808959961
-44.1750450134277344 2.5417020320892334 0.81818389892578125
-44.4383926391601562 2.5417020320892334 0.588678121566772461
-43.8097038269042969 2.5417020320892334 0.803058087825775146
-44.157012939453125 2.5417020320892334 0.656548678874969482
-44.6690750122070312 2.5417020320892334 0.463243246078491211
-44.3757820129394531 2.5417020320892334 0.461800456047058105
-43.742767333984375 2.5417020320892334 0.948955655097961426
-44.0843505859375 2.5417020320892334 0.727228641510009766
-44.2647743225097656 2.5417020320892334 0.81947481632232666
-44.5180625915527344 2.5417020320892334 0.526024222373962402
-43.6874465942382812 2.5417020320892334 0.76415640115737915
-43.8809776306152344 2.5417020320892334 0.684174120426177979
-43.6109580993652344 2.5417020320892334 0.886072337627410889
-42.6275863647460938 2.5417020320892334 1.5318913459777832
-42.3905792236328125 2.5417020320892334 1.52951371669769287
-41.7893447875976562 2.5417020320892334 2.12546491622924805
-41.751678466796875 2.5417020320892334 1.93095827102661133
-42.5185890197753906 2.5417020320892334 1.48500657081604004
-42.5805015563964844 2.5417020320892334 1.61976242065429688
-42.9007072448730469 2.5417020320892334 1.34678053855895996
-42.8838653564453125 2.5417020320892334 1.40296530723571777
-43.9015693664550781 2.5417020320892334 0.667561769485473633
-42.7796096801757812 2.5417020320892334 1.38743889331817627
-41.7400360107421875 2.5417020320892334 2.1846611499786377
-42.641143798828125 2.5417020320892334 1.39109456539154053
-43.1940841674804688 2.5417020320892334 1.15422344207763672
-42.5943603515625 2.5417020320892334 1.59360206127166748
-42.3865203857421875 2.5417020320892334 1.47021758556365967
-42.0081672668457031 2.5417020320892334 1.7149580717086792
-44.0472488403320312 2.5417020320892334 0.593972980976104736
-43.4755630493164062 2.5417020320892334 0.94090193510055542
-42.6210670471191406 2.5417020320892334 1.58231163024902344
-43.3861198425292969 2.5417020320892334 0.88558882474899292
-43.3986434936523438 2.5417020320892334 1.01376235485076904
-42.5566368103027344 2.5417020320892334 1.46999788284301758
-42.7960014343261719 2.5417020320892334 1.34556424617767334
-43.0109100341796875 2.5417020320892334 1.31714606285095215
-42.6922187805175781 2.5417020320892334 1.3838961124420166
-42.1574440002441406 2.5417020320892334 1.93621695041656494
-43.7342948913574219 2.5417020320892334 0.822114884853363037
-41.8266105651855469 2.5417020320892334 1.87233078479766846
-41.6940536499023438 2.5417020320892334 1.86536920070648193
-42.6626510620117188 2.5417020320892334 1.47149193286895752
-43.3817329406738281 2.5417020320892334 1.05075395107269287
-43.373870849609375 2.5417020320892334 0.936500966548919678
-43.1125221252441406 2.5417020320892334 1.16663694381713867
-43.0125617980957031 2.5417020320892334 1.30101883411407471
-41.8901100158691406 2.5417020320892334 1.85067200660705566
-41.8509292602539062 2.5417020320892334 1.91958796977996826
-41.9474067687988281 2.5417020320892334 1.85147809982299805
-44.2188529968261719 2.5417020320892334 0.435072839260101318
-41.8901214599609375 2.5417020320892334 1.78387165069580078
-41.8635368347167969 2.5417020320892334 1.83643889427185059
-43.6287193298339844 2.5417020320892334 0.791222095489501953
-41.9558677673339844 2.5417020320892334 1.7722468376159668
-42.9516639709472656 2.5417020320892334 1.34960150718688965
-42.4504356384277344 2.5417020320892334 1.59943234920501709
-43.3535270690917969 2.5417020320892334 1.11705255508422852
-42.6190452575683594 2.5417020320892334 1.39556717872619629
-44.1950187683105469 2.5417020320892334 0.442383319139480591
-42.7187271118164062 2.5417020320892334 1.52941262722015381
-42.5189743041992188 2.5417020320892334 1.44047200679779053
-43.1281051635742188 2.5417020320892334 1.06360423564910889
-42.2545890808105469 2.5417020320892334 1.57212281227111816
-41.6937103271484375 2.5417020320892334 1.88746118545532227
-42.2229156494140625 2.5417020320892334 1.88905191421508789
-41.7115249633789062 2.5417020320892334 2.1039421558380127
-41.668853759765625 2.5417020320892334 1.94383692741394043
-43.1114463806152344 2.5417020320892334 1.16863048076629639
-42.1253623962402344 2.5417020320892334 1.87081384658813477
-43.0663490295410156 2.5417020320892334 1.32101023197174072
-41.9415550231933594 2.5417020320892334 1.96299278736114502
-44.2297592163085938 2.5417020320892334 0.414802581071853638
-41.8559532165527344 2.5417020320892334 2.19498848915100098
-43.2132682800292969 2.5417020320892334 0.985892236232757568
-41.8609809875488281 2.5417020320892334 1.95232725143432617
-43.0203514099121094 2.5417020320892334 1.23840415477752686
-41.8281440734863281 2.5417020320892334 2.1697695255279541
-42.0892524719238281 2.5417020320892334 1.94025242328643799
-42.6007232666015625 2.5417020320892334 1.63214683532714844
-41.710113525390625 2.5417020320892334 1.97802698612213135
-44.7583503723144531 2.5417020320892334 0.0905610024929046631
-43.5535812377929688 2.5417020320892334 0.870909631252288818
-43.8727798461914062 2.5417020320892334 0.740141808986663818
-41.6596794128417969 2.5417020320892334 2.02469444274902344
-41.6611595153808594 2.5417020320892334 1.9619443416595459
-42.4805183410644531 2.5417020320892334 1.47023451328277588
-42.6146316528320312 2.5417020320892334 1.63177585601806641
-42.4928779602050781 2.5417020320892334 1.70754396915435791
-42.9000434875488281 2.5417020320892334 1.41456508636474609
-44.2940330505371094 2.5417020320892334 0.438078075647354126
-42.1243972778320312 2.5417020320892334 1.88451230525970459
-43.0508384704589844 2.5417020320892334 1.08473837375640869
-42.0585479736328125 2.5417020320892334 1.72896778583526611
-42.0661048889160156 2.5417020320892334 1.77844333648681641
-43.1829719543457031 2.5417020320892334 1.12479710578918457
-43.2578163146972656 2.5417020320892334 1.11733436584472656
-41.98016357421875 2.5417020320892334 1.85076940059661865
-41.8463706970214844 2.5417020320892334 2.16498136520385742
-42.7562026977539062 2.5417020320892334 1.28365492820739746
-42.1613006591796875 2.5417020320892334 1.74906980991363525
-43.2485084533691406 2.5417020320892334 1.01647448539733887
-42.4979248046875 2.5417020320892334 1.71802842617034912
-42.0719261169433594 2.5417020320892334 1.86744010448455811
-44.4658088684082031 2.5417020320892334 0.311806678771972656
-42.2418861389160156 2.5417020320892334 1.91703033447265625
-43.0318717956542969 2.51913595199584961 1.08369076251983643
-41.779541015625 2.49963021278381348 1.80618929862976074
-43.5876846313476562 2.54093575477600098 0.763029217720031738
-42.4187507629394531 2.50871777534484863 1.43741405010223389
-41.786529541015625 2.50029468536376953 1.80215609073638916
-43.9763565063476562 2.53345298767089844 0.538796186447143555
-43.4444541931152344 2.53222370147705078 0.845661759376525879
-41.8077583312988281 2.50884723663330078 1.78991007804870605
-42.5734825134277344 2.54042696952819824 1.34814548492431641
-42.4673728942871094 2.53428316116333008 1.40936219692230225
-41.8692436218261719 2.54009699821472168 1.75443708896636963
-44.0562667846679688 2.53165769577026367 0.49269413948059082
-43.8712577819824219 2.50602197647094727 0.599429726600646973
-43.1709823608398438 2.51036453247070312 1.00343537330627441
-44.0987815856933594 2.51945185661315918 0.468164920806884766
-43.9646263122558594 2.51506137847900391 0.545562803745269775
-43.8594322204589844 2.50560426712036133 0.60625302791595459
-42.5987205505371094 2.50308895111083984 1.33358669281005859
-43.8148727416992188 2.51830792427062988 0.631960511207580566
-44.0441856384277344 2.51400566101074219 0.499662995338439941
-43.113555908203125 2.50810670852661133 1.03656554222106934
-42.5707550048828125 2.50543570518493652 1.34972107410430908
-44.0887603759765625 2.5072329044342041 0.473949790000915527
-44.3125991821289062 2.52452802658081055 0.344810247421264648
-45.0421943664550781 2.49170184135437012 0.0494879484176635742
-45.2845535278320312 2.49170184135437012 0.0286784544587135315
-45.2253913879394531 2.49170184135437012 0.0205966047942638397
-45.2717208862304688 2.49170184135437012 0.00581885501742362976
-45.0082168579101562 2.49170184135437012 0.00143890082836151123
-44.9469032287597656 2.49170184135437012 0.00761452317237854004
-41.9153480529785156 2.49170184135437012 1.90441751480102539
-42.3043441772460938 2.49170184135437012 1.75429964065551758
-41.9418296813964844 2.49170184135437012 1.94046032428741455
-42.6728172302246094 2.49170184135437012 1.34769248962402344
-42.3447265625 2.49170184135437012 1.62569200992584229
-43.1979789733886719 2.49170184135437012 1.14963483810424805
-43.6040382385253906 2.49170184135437012 0.844961285591125488
-44.7103233337402344 2.49170184135437012 0.137219876050949097
-42.9329147338867188 2.49170184135437012 1.34148025512695312
-41.9237442016601562 2.49170184135437012 2.11554551124572754
-41.7193145751953125 2.49170184135437012 2.09821081161499023
-42.3840446472167969 2.49170184135437012 1.50911641120910645
-42.3965606689453125 2.49170184135437012 1.50804293155670166
-42.7276382446289062 2.49170184135437012 1.47181582450866699
-42.1153144836425781 2.49170184135437012 1.67433834075927734
-42.4228363037109375 2.49170184135437012 1.59746909141540527
-42.8881454467773438 2.49170184135437012 1.38545548915863037
-42.5362052917480469 2.49170184135437012 1.66829824447631836
-42.703765869140625 2.49170184135437012 1.57121551036834717
-43.7374000549316406 2.49170184135437012 0.706870734691619873
-42.0921630859375 2.49170184135437012 1.63364434242248535
-42.7814483642578125 2.49170184135437012 1.43640589714050293
-42.8910369873046875 2.49170184135437012 1.35817694664001465
-41.8321342468261719 2.49170184135437012 1.78945326805114746
-42.1854171752929688 2.49170184135437012 1.94245874881744385
-43.1260643005371094 2.49170184135437012 1.07476818561553955
-44.0312232971191406 2.49170184135437012 0.596081674098968506
-43.8527603149414062 2.49170184135437012 0.611405670642852783
-41.8262405395507812 2.49170184135437012 1.87977004051208496
-42.5845603942871094 2.49170184135437012 1.46707618236541748
-44.3977622985839844 2.49170184135437012 0.302248924970626831
-42.2375144958496094 2.49170184135437012 1.55376768112182617
-42.2879409790039062 2.49170184135437012 1.76929473876953125
-43.27960205078125 2.49170184135437012 1.03682327270507812
-43.0200462341308594 2.49170184135437012 1.13928186893463135
-42.4361381530761719 2.49170184135437012 1.49162399768829346
-41.6593246459960938 2.49170184135437012 1.90865111351013184
-42.9204292297363281 2.49170184135437012 1.34087646007537842
-43.5177726745605469 2.49170184135437012 0.919609546661376953
-42.1619796752929688 2.49170184135437012 1.93115234375
-42.4306259155273438 2.49170184135437012 1.51059472560882568
-42.0999069213867188 2.49170184135437012 1.85589253902435303
-43.1909217834472656 2.49170184135437012 1.14548277854919434
-41.7742271423339844 2.49170184135437012 2.26057314872741699
-41.8840751647949219 2.49170184135437012 2.14248871803283691
-43.8160820007324219 2.49170184135437012 0.653684496879577637
-41.7718582153320312 2.49170184135437012 2.17048215866088867
-42.3694496154785156 2.49170184135437012 1.56491005420684814
-42.0098953247070312 2.49170184135437012 1.70500040054321289
-41.8574028015136719 2.49170184135437012 1.81455934047698975
-41.9397506713867188 2.49170184135437012 2.06885004043579102
-43.7300491333007812 2.49170184135437012 0.696589767932891846
-42.839141845703125 2.49170184135437012 1.44426834583282471
-41.8588981628417969 2.49170184135437012 2.13439226150512695
-43.4724655151367188 2.49170184135437012 0.956853806972503662
-42.6661415100097656 2.49170184135437012 1.51425802707672119
-42.7130279541015625 2.49170184135437012 1.58066034317016602
-42.5371208190917969 2.49170184135437012 1.70309984683990479
-43.7729148864746094 2.49170184135437012 0.759645402431488037
-43.0022125244140625 2.49170184135437012 1.3479381799697876
-42.3953781127929688 2.49170184135437012 1.66257786750793457
-42.6529083251953125 2.49170184135437012 1.49037718772888184
-42.6445960998535156 2.49170184135437012 1.45776140689849854
-43.7149772644042969 2.49170184135437012 0.798250794410705566
-42.7954864501953125 2.49170184135437012 1.29535079002380371
-43.8830108642578125 2.49170184135437012 0.686097621917724609
-42.8507270812988281 2.49170184135437012 1.32909476757049561
-43.4088134765625 2.49170184135437012 1.06688535213470459
-42.1166000366210938 2.49170184135437012 1.8565143346786499
-42.5143661499023438 2.49170184135437012 1.55387783050537109
-42.7684059143066406 2.49170184135437012 1.5446544885635376
-42.0878829956054688 2.49170184135437012 1.85604369640350342
-41.7047920227050781 2.49170184135437012 2.1219792366027832
-42.4464836120605469 2.49170184135437012 1.5439918041229248
-41.9118690490722656 2.49170184135437012 2.01706814765930176
-44.7633514404296875 2.49170184135437012 0.0967731773853302002
-43.3515701293945312 2.49170184135437012 1.05047488212585449
-42.3759040832519531 2.49170184135437012 1.57902765274047852
-43.268951416015625 2.49170184135437012 1.14857184886932373
-43.1096916198730469 2.49170184135437012 1.15665519237518311
-41.77789306640625 2.49170184135437012 2.1837000846862793
-42.0558357238769531 2.49170184135437012 1.70108342170715332
-44.3378791809082031 2.49170184135437012 0.388091176748275757
-42.1630744934082031 2.49170184135437012 1.5889594554901123
-42.9360504150390625 2.49170184135437012 1.30284607410430908
-44.3164176940917969 2.49170184135437012 0.394272595643997192
-42.71435546875 2.49170184135437012 1.49002504348754883
-41.9554710388183594 2.49170184135437012 1.83055531978607178
-44.1411056518554688 2.49170184135437012 0.461777299642562866
-42.6827812194824219 2.49170184135437012 1.38228392601013184
-42.9067001342773438 2.49170184135437012 1.42130374908447266
-42.5909461975097656 2.49170184135437012 1.38761627674102783
-42.3404083251953125 2.49170184135437012 1.53675806522369385
-41.7207603454589844 2.49170184135437012 1.85663771629333496
-42.6871147155761719 2.49170184135437012 1.57640206813812256
-42.8685455322265625 2.49170184135437012 1.4653935432434082
-43.9817085266113281 2.49170184135437012 0.853903472423553467
-43.999420166015625 2.49170184135437012 0.883826315402984619
-44.5906181335449219 2.49170184135437012 0.31770777702331543
-43.8545608520507812 2.49170184135437012 0.890719771385192871
-45.0619316101074219 2.49170184135437012 0.300675630569458008
-44.9266319274902344 2.49170184135437012 0.0999141931533813477
-44.5582695007324219 2.49170184135437012 0.350928068161010742
-43.7950286865234375 2.49170184135437012 0.98376309871673584
-44.9674453735351562 2.49170184135437012 0.0689883232116699219
-43.4839591979980469 2.49170184135437012 1.04032719135284424
-44.667572021484375 2.49170184135437012 0.340762972831726074
-43.8627700805664062 2.49170184135437012 0.922710418701171875
-45.1430778503417969 2.49170184135437012 0.157339632511138916
-43.4257469177246094 2.49170184135437012 1.13776540756225586
-43.1159019470214844 2.49170184135437012 1.36268711090087891
-43.7862434387207031 2.49170184135437012 1.06864476203918457
-43.7120285034179688 2.49170184135437012 1.04212832450866699
-42.1217231750488281 2.49170184135437012 2.01406145095825195
-44.8177375793457031 2.49170184135437012 0.299871444702148438
-44.0516433715820312 2.49170184135437012 0.646432280540466309
-42.466400146484375 2.49170184135437012 1.76834988594055176
-43.1593399047851562 2.49170184135437012 1.3966900110244751
-44.6475105285644531 2.49170184135437012 0.607668876647949219
-43.4592857360839844 2.49170184135437012 1.13530468940734863
-44.21209716796875 2.49170184135437012 0.702428281307220459
-42.609161376953125 2.49170184135437012 1.67057895660400391
-44.7042999267578125 2.49170184135437012 0.32029426097869873
-44.8456802368164062 2.49170184135437012 0.0641047954559326172
-44.23565673828125 2.49170184135437012 0.768557488918304443
-44.8846244812011719 2.49170184135437012 0.410957306623458862
-43.3564033508300781 2.49170184135437012 1.26568460464477539
-43.7424392700195312 2.49170184135437012 1.04146027565002441
-42.6460914611816406 2.49170184135437012 1.66212308406829834
-43.6773490905761719 2.49170184135437012 0.985066533088684082
-42.5201148986816406 2.49170184135437012 1.75587272644042969
-44.4391822814941406 2.49170184135437012 0.732725203037261963
-43.5886878967285156 2.49170184135437012 1.04688882827758789
-44.1644515991210938 2.49170184135437012 0.837012231349945068
-42.2955741882324219 2.49170184135437012 1.91910743713378906
-43.9723854064941406 2.49170184135437012 0.824275016784667969
-43.1645774841308594 2.49170184135437012 1.40178132057189941
-43.8676948547363281 2.49170184135437012 0.922902047634124756
-43.9341278076171875 2.49170184135437012 0.709231138229370117
-44.5181694030761719 2.49170184135437012 0.428570985794067383
-45.0985336303710938 2.49170184135437012 0.27394866943359375
-44.9665870666503906 2.49170184135437012 0.21717524528503418
-43.1413917541503906 2.49170184135437012 1.33902502059936523
-43.9643936157226562 2.49170184135437012 0.874959468841552734
-44.6191787719726562 2.49170184135437012 0.477608799934387207
-44.1266708374023438 2.49170184135437012 0.850861191749572754
-42.7506561279296875 2.49170184135437012 1.6905292272567749
-44.660980224609375 2.49170184135437012 0.181547880172729492
-43.6698989868164062 2.49170184135437012 0.954702019691467285
-44.5465583801269531 2.49170184135437012 0.412361025810241699
-43.0972747802734375 2.49170184135437012 1.37122011184692383
-44.2849159240722656 2.49170184135437012 0.498691082000732422
-42.6880989074707031 2.49170184135437012 1.69568276405334473
-43.2817420959472656 2.49170184135437012 1.36415326595306396
-45.0648841857910156 2.49170184135437012 0.268220603466033936
-45.0442695617675781 2.49170184135437012 0.132414579391479492
-42.2064094543457031 2.49170184135437012 1.98519814014434814
-44.2143440246582031 2.49170184135437012 0.781182587146759033
-44.2590370178222656 2.49170184135437012 0.772395491600036621
-43.206298828125 2.49170184135437012 1.43565177917480469
-44.9444389343261719 2.49170184135437012 0.0973795652389526367
-44.8538665771484375 2.49170184135437012 0.412997245788574219
-44.8625679016113281 2.49170184135437012 0.35281825065612793
-44.9529380798339844 2.49170184135437012 0.0735708475112915039
-44.2663993835449219 2.49170184135437012 0.686391055583953857
-43.3833847045898438 2.49170184135437012 1.11258113384246826
-44.2118644714355469 2.49170184135437012 0.712814748287200928
-42.44873046875 2.49170184135437012 1.81120479106903076
-44.4470367431640625 2.49170184135437012 0.696496069431304932
-44.9089775085449219 2.49170184135437012 0.261732816696166992
-44.2223892211914062 2.49170184135437012 0.794282972812652588
-42.482086181640625 2.49170184135437012 1.83270597457885742
-44.3184738159179688 2.49170184135437012 0.759842038154602051
-42.6780471801757812 2.49170184135437012 1.72638750076293945
-44.4540176391601562 2.49170184135437012 0.706499576568603516
-44.8390159606933594 2.49170184135437012 0.425735503435134888
-44.9291801452636719 2.49170184135437012 0.440888851881027222
-44.0335235595703125 2.49170184135437012 0.812695920467376709
-43.6827888488769531 2.49170184135437012 1.08130073547363281
-44.2277297973632812 2.49170184135437012 0.821403861045837402
-44.2962722778320312 2.49170184135437012 0.55076897144317627
-44.2798080444335938 2.49170184135437012 0.746349990367889404
-44.2737693786621094 2.49170184135437012 0.492593646049499512
-43.6072502136230469 2.49170184135437012 0.968786716461181641
-43.1290435791015625 2.49170184135437012 1.37357211112976074
-42.9694061279296875 2.49170184135437012 1.41726326942443848
-44.7076339721679688 2.49170184135437012 0.340968847274780273
-43.2340164184570312 2.49170184135437012 1.41348934173583984
-43.8630714416503906 2.49170184135437012 0.934633433818817139
-43.6220054626464844 2.49170184135437012 0.950298786163330078
-43.8214492797851562 2.49170184135437012 0.81922447681427002
-43.7758941650390625 2.49170184135437012 0.911337494850158691
-42.826080322265625 2.49170184135437012 1.6172562837600708
-42.1526679992675781 2.49170184135437012 2.03025603294372559
-44.0162734985351562 2.49170184135437012 0.669746518135070801
-44.9662628173828125 2.49170184135437012 0.297108829021453857
-44.6336288452148438 2.49170184135437012 0.598344743251800537
-43.8552093505859375 2.49170184135437012 1.02761292457580566
-44.8484039306640625 2.49170184135437012 0.109229803085327148
-43.1568069458007812 2.49170184135437012 1.30591750144958496
-42.5760536193847656 2.49170184135437012 1.73162627220153809
-36.5336036682128906 2.52308869361877441 4.45636701583862305
-36.5336036682128906 2.52941703796386719 4.50218582153320312
-36.5336036682128906 2.52662801742553711 4.43177509307861328
-39.0528755187988281 2.49312281608581543 3.12567567825317383
-38.4038658142089844 2.50706887245178223 3.50010538101196289
-39.8757400512695312 2.52385926246643066 2.65094518661499023
-39.8749771118164062 2.49901914596557617 2.65138626098632812
-39.1475410461425781 2.52137517929077148 3.0710604190826416
-38.9516868591308594 2.49360513687133789 3.18405437469482422
-37.8974113464355469 2.49787521362304688 3.79228925704956055
-37.7983131408691406 2.50193214416503906 3.84946084022521973
-38.4293060302734375 2.51326727867126465 3.48542523384094238
-39.9008331298828125 2.50332188606262207 2.63646769523620605
-39.9469223022460938 2.53365087509155273 2.60987973213195801
-38.5269699096679688 2.51667284965515137 3.42908143997192383
-40.4301643371582031 2.5341641902923584 2.3310849666595459
-39.6310882568359375 2.50427913665771484 2.79208946228027344
-39.62176513671875 2.53199505805969238 2.7974696159362793
-36.5363121032714844 2.52861356735229492 4.57753896713256836
-36.8844795227050781 2.53156065940856934 4.37667274475097656
-38.8965492248535156 2.52266860008239746 3.21586275100708008
-38.9721908569335938 2.53220152854919434 3.17222309112548828
-36.5656204223632812 2.49669051170349121 4.56062936782836914
-37.4749603271484375 2.54104733467102051 4.03601169586181641
-38.398773193359375 2.53275585174560547 3.50304222106933594
-37.9524726867675781 2.52068018913269043 3.76052379608154297
-39.2836837768554688 2.53575491905212402 2.99251604080200195
-37.9695549011230469 2.51819229125976562 3.75066876411437988
-37.4850502014160156 2.52793335914611816 4.03018999099731445
-37.3248634338378906 2.50237822532653809 4.1226048469543457
-37.04095458984375 2.51066803932189941 4.28639841079711914
-37.7864303588867188 2.5417020320892334 3.51978874206542969
-36.8376197814941406 2.5417020320892334 3.96648049354553223
-39.1631507873535156 2.5417020320892334 2.66597580909729004
-38.6939582824707031 2.5417020320892334 2.99473237991333008
-39.7498016357421875 2.5417020320892334 2.27905607223510742
-40.1545143127441406 2.5417020320892334 2.14227151870727539
-38.4911880493164062 2.5417020320892334 3.14811801910400391
-39.6548614501953125 2.5417020320892334 2.48991537094116211
-40.0852890014648438 2.5417020320892334 2.38664722442626953
-39.5087547302246094 2.5417020320892334 2.4305572509765625
-38.6578826904296875 2.5417020320892334 2.9753568172454834
-40.0571823120117188 2.5417020320892334 2.39451313018798828
-38.8154067993164062 2.5417020320892334 3.04021739959716797
-40.3245277404785156 2.5417020320892334 2.20224714279174805
-38.10076904296875 2.5417020320892334 3.32813453674316406
-38.1175460815429688 2.5417020320892334 3.3446197509765625
-40.0971107482910156 2.5417020320892334 2.11256504058837891
-39.5709648132324219 2.5417020320892334 2.66750907897949219
-38.6399116516113281 2.5417020320892334 3.11255979537963867
-38.1486091613769531 2.5417020320892334 3.37112522125244141
-40.3354988098144531 2.5417020320892334 2.19089937210083008
-39.1214179992675781 2.5417020320892334 2.7737126350402832
-38.5824356079101562 2.5417020320892334 3.16397809982299805
-37.4559745788574219 2.5417020320892334 3.58922719955444336
-37.4289970397949219 2.5417020320892334 3.68760991096496582
-39.7285270690917969 2.5417020320892334 2.30212759971618652
-39.6532020568847656 2.5417020320892334 2.53276395797729492
-40.0591278076171875 2.5417020320892334 2.25687122344970703
-40.1892471313476562 2.5417020320892334 2.27888774871826172
-40.355438232421875 2.5417020320892334 2.04587984085083008
-40.1503753662109375 2.5417020320892334 2.44880938529968262
-38.4910926818847656 2.5417020320892334 3.15610289573669434
-37.8356742858886719 2.5417020320892334 3.40902543067932129
-39.2753257751464844 2.5417020320892334 2.70160436630249023
-40.2256050109863281 2.5417020320892334 2.19511270523071289
-38.3407096862792969 2.5417020320892334 3.10160088539123535
-40.427337646484375 2.5417020320892334 2.29532599449157715
-39.0547943115234375 2.5417020320892334 2.75940227508544922
-39.5285377502441406 2.5417020320892334 2.7270817756652832
-38.7169265747070312 2.5417020320892334 3.03515768051147461
-37.7582817077636719 2.5417020320892334 3.41104483604431152
-39.6804580688476562 2.5417020320892334 2.64908242225646973
-36.8034172058105469 2.5417020320892334 3.96185421943664551
-38.639617919921875 2.5417020320892334 2.99143099784851074
-38.1303176879882812 2.5417020320892334 3.21922707557678223
-40.1659889221191406 2.5417020320892334 2.24463677406311035
-39.2727241516113281 2.5417020320892334 2.75011849403381348
-39.7504196166992188 2.5417020320892334 2.2902829647064209
-39.0560760498046875 2.5417020320892334 2.83579206466674805
-39.2742385864257812 2.5417020320892334 2.75435662269592285
-39.7846450805664062 2.5417020320892334 2.46342134475708008
-39.035736083984375 2.5417020320892334 2.92982101440429688
-38.8689041137695312 2.5417020320892334 3.00642752647399902
-40.3880271911621094 2.5417020320892334 2.14358329772949219
-39.8868827819824219 2.5417020320892334 2.4600672721862793
-38.3673744201660156 2.5417020320892334 3.21943259239196777
-38.5633392333984375 2.5417020320892334 3.01265406608581543
-38.5533523559570312 2.5417020320892334 2.98406744003295898
-39.7461433410644531 2.5417020320892334 2.42568516731262207
-39.9903221130371094 2.5417020320892334 2.16928863525390625
-39.2051429748535156 2.5417020320892334 2.74365806579589844
-38.64697265625 2.5417020320892334 2.91119503974914551
-39.1412277221679688 2.5417020320892334 2.65719819068908691
-38.8437347412109375 2.5417020320892334 2.99857091903686523
-39.9589729309082031 2.5417020320892334 2.37945675849914551
-38.9571189880371094 2.5417020320892334 2.87239551544189453
-39.9154930114746094 2.5417020320892334 2.35209989547729492
-37.5969352722167969 2.5417020320892334 3.62653851509094238
-39.4921531677246094 2.5417020320892334 2.66294288635253906
-40.0873184204101562 2.5417020320892334 2.07542324066162109
-39.5826072692871094 2.5417020320892334 2.62388253211975098
-39.5200653076171875 2.5417020320892334 2.49106550216674805
-40.2592315673828125 2.5417020320892334 2.26254510879516602
-38.7396659851074219 2.5417020320892334 3.07568860054016113
-37.2017326354980469 2.5417020320892334 3.75757813453674316
-38.3377609252929688 2.5417020320892334 3.2291712760925293
-38.1575889587402344 2.5417020320892334 3.23234963417053223
-38.7090721130371094 2.5417020320892334 2.99127435684204102
-40.2390975952148438 2.5417020320892334 2.08019447326660156
-39.2188224792480469 2.5417020320892334 2.79768276214599609
-37.843048095703125 2.5417020320892334 3.39622950553894043
-40.3691215515136719 2.5417020320892334 2.19161510467529297
-38.7118492126464844 2.5417020320892334 2.89661526679992676
-38.2186317443847656 2.5417020320892334 3.22887802124023438
-37.4414024353027344 2.5417020320892334 3.62353849411010742
-39.8268051147460938 2.5417020320892334 2.22496461868286133
-37.8345947265625 2.5417020320892334 3.41334438323974609
-39.4559097290039062 2.5417020320892334 2.53162527084350586
-38.5599555969238281 2.5417020320892334 3.12248754501342773
-39.7388343811035156 2.5417020320892334 2.29848837852478027
-38.6606979370117188 2.5417020320892334 3.02443861961364746
-39.4991912841796875 2.5417020320892334 2.55056095123291016
-40.3200569152832031 2.5417020320892334 2.35546731948852539
-39.8805427551269531 2.5417020320892334 2.37849903106689453
-38.3066673278808594 2.5417020320892334 3.16710376739501953
-38.7457427978515625 2.5417020320892334 3.01197052001953125
-39.5377655029296875 2.5417020320892334 2.69083189964294434
-39.6223526000976562 2.5417020320892334 2.43238568305969238
-39.8833236694335938 2.5417020320892334 2.36814761161804199
-39.6454010009765625 2.5417020320892334 2.58594584465026855
-38.5438957214355469 2.5417020320892334 3.12675285339355469
-40.1802825927734375 2.5417020320892334 2.20500540733337402
-37.9934959411621094 2.5417020320892334 3.29443049430847168
-40.0993919372558594 2.5417020320892334 2.10846853256225586
-38.8106155395507812 2.5417020320892334 2.98641681671142578
-40.2374763488769531 2.5417020320892334 2.37923288345336914
-40.2132453918457031 2.5417020320892334 2.21877598762512207
-40.4051246643066406 2.5417020320892334 2.3246607780456543
-39.5910530090332031 2.5417020320892334 2.46559619903564453
-38.8140830993652344 2.5417020320892334 2.97942590713500977
-39.8894462585449219 2.5417020320892334 2.23235607147216797
-39.9527168273925781 2.5417020320892334 2.26206159591674805
-36.9962196350097656 2.5417020320892334 4.20601654052734375
-36.8960189819335938 2.5417020320892334 4.2663421630859375
-36.6049308776855469 2.5417020320892334 4.53065729141235352
-38.2869224548339844 2.5417020320892334 3.50568270683288574
-36.8974800109863281 2.5417020320892334 4.14651870727539062
-38.4008140563964844 2.5417020320892334 3.47427082061767578
-36.8107070922851562 2.5417020320892334 4.07137060165405273
-36.84759521484375 2.5417020320892334 4.01947402954101562
-38.6345634460449219 2.5417020320892334 3.20018744468688965
-36.6223945617675781 2.5417020320892334 4.52469110488891602
-37.7929573059082031 2.5417020320892334 3.59226489067077637
-37.0952072143554688 2.5417020320892334 3.88255071640014648
-36.9054298400878906 2.5417020320892334 4.25513505935668945
-37.947265625 2.5417020320892334 3.62298321723937988
-36.7239418029785156 2.5417020320892334 4.15543174743652344
-38.1064605712890625 2.5417020320892334 3.49913787841796875
-37.0424766540527344 2.5417020320892334 4.12510871887207031
-38.1359748840332031 2.5417020320892334 3.58522653579711914
-39.1027030944824219 2.5417020320892334 2.97275900840759277
-36.5956802368164062 2.5417020320892334 4.20386600494384766
-38.3424873352050781 2.5417020320892334 3.4083104133605957
-38.2294464111328125 2.5417020320892334 3.49863529205322266
-38.5715751647949219 2.5417020320892334 3.24555110931396484
-38.5556449890136719 2.5417020320892334 3.32946062088012695
-37.3244552612304688 2.5417020320892334 3.84779691696166992
-38.5026054382324219 2.5417020320892334 3.33908653259277344
-38.4953536987304688 2.5417020320892334 3.29438662528991699
-36.5639228820800781 2.5417020320892334 4.28423118591308594
-38.8643074035644531 2.5417020320892334 3.12107610702514648
-36.876220703125 2.5417020320892334 4.32808542251586914
-38.4234695434570312 2.5417020320892334 3.35724186897277832
-37.5651588439941406 2.5417020320892334 3.96991848945617676
-37.4115066528320312 2.5417020320892334 3.91698646545410156
-36.6250495910644531 2.5417020320892334 4.39648675918579102
-37.9751510620117188 2.5417020320892334 3.67109251022338867
-39.0524253845214844 2.5417020320892334 3.00022077560424805
-38.0086250305175781 2.5417020320892334 3.63378429412841797
-36.9341506958007812 2.5417020320892334 3.96157455444335938
-36.5877227783203125 2.5417020320892334 4.4116816520690918
-36.703460693359375 2.5417020320892334 4.14223623275756836
-39.3412628173828125 2.5417020320892334 2.90313243865966797
-39.5849761962890625 2.5417020320892334 2.80148649215698242
-38.0857467651367188 2.5417020320892334 3.55722188949584961
-37.0257987976074219 2.5417020320892334 3.94941544532775879
-39.7899017333984375 2.5417020320892334 2.63750743865966797
-37.1638832092285156 2.5417020320892334 3.83814263343811035
-37.85382080078125 2.5417020320892334 3.60552620887756348
-38.5145683288574219 2.5417020320892334 3.25051331520080566
-39.9952583312988281 2.5417020320892334 2.54713869094848633
-37.7711410522460938 2.5417020320892334 3.66666746139526367
-37.6584968566894531 2.5417020320892334 3.63915705680847168
-39.1105270385742188 2.5417020320892334 2.95852398872375488
-38.0685462951660156 2.5417020320892334 3.49343132972717285
-38.4987411499023438 2.5417020320892334 3.39082646369934082
-39.1683578491210938 2.5417020320892334 3.01117324829101562
-36.838592529296875 2.5417020320892334 4.27232789993286133
-37.8100242614746094 2.5417020320892334 3.78130793571472168
-38.7769126892089844 2.5417020320892334 3.1071784496307373
-38.18035888671875 2.5417020320892334 3.62215971946716309
-38.1063270568847656 2.5417020320892334 3.59849309921264648
-38.1798782348632812 2.5417020320892334 3.39928197860717773
-37.9588851928710938 2.5417020320892334 3.61842107772827148
-37.1765518188476562 2.5417020320892334 3.94822859764099121
-38.121124267578125 2.5417020320892334 3.43802380561828613
-37.9762802124023438 2.5417020320892334 3.6524658203125
-37.9315185546875 2.5417020320892334 3.74948358535766602
-36.7789154052734375 2.5417020320892334 4.21321773529052734
-37.9188194274902344 2.5417020320892334 3.77731609344482422
-37.0226402282714844 2.5417020320892334 4.20148277282714844
-39.5008621215820312 2.5417020320892334 2.8213953971862793
-36.668243408203125 2.5417020320892334 4.45338106155395508
-37.6439628601074219 2.5417020320892334 3.74118351936340332
-37.0855598449707031 2.5417020320892334 4.01920986175537109
-36.6300697326660156 2.5417020320892334 4.46790313720703125
-37.5813064575195312 2.5417020320892334 3.78716516494750977
-36.7095298767089844 2.5417020320892334 4.46485090255737305
-36.8776512145996094 2.5417020320892334 4.0726318359375
-37.2659797668457031 2.5417020320892334 3.95947957038879395
-37.3625450134277344 2.5417020320892334 3.90024805068969727
-36.6735992431640625 2.5417020320892334 4.17794561386108398
-38.2085685729980469 2.5417020320892334 3.56940627098083496
-37.7277717590332031 2.5417020320892334 3.66179203987121582
-38.2640800476074219 2.5417020320892334 3.50947165489196777
-37.4891853332519531 2.5417020320892334 3.74452996253967285
-36.5610389709472656 2.5417020320892334 4.40035009384155273
-37.5626449584960938 2.5417020320892334 3.68389892578125
-38.4688186645507812 2.5417020320892334 3.28064990043640137
-37.6251296997070312 2.5417020320892334 3.93696236610412598
-39.9865951538085938 2.5417020320892334 2.57835578918457031
-37.0504379272460938 2.5417020320892334 4.21993637084960938
-36.8875160217285156 2.5417020320892334 4.13071537017822266
-39.0835304260253906 2.5417020320892334 3.05578255653381348
-36.8585624694824219 2.5417020320892334 4.16668796539306641
-39.7182960510253906 2.5417020320892334 2.67530679702758789
-39.7780609130859375 2.5417020320892334 2.66139936447143555
-37.712860107421875 2.5417020320892334 3.62953686714172363
-36.9147109985351562 2.5417020320892334 4.32668590545654297
-38.205352783203125 2.5417020320892334 3.49352097511291504
-40.2810554504394531 2.5417020320892334 2.40832304954528809
-36.6967926025390625 2.5417020320892334 4.11874580383300781
-37.6025352478027344 2.5417020320892334 3.79924154281616211
-36.9395637512207031 2.5417020320892334 4.00286865234375
-38.1360740661621094 2.5417020320892334 3.3848567008972168
-37.1095657348632812 2.5417020320892334 4.10157060623168945
-37.5571403503417969 2.5417020320892334 3.79454135894775391
-37.0965118408203125 2.5417020320892334 3.93481731414794922
-37.2164154052734375 2.5417020320892334 3.81559348106384277
-37.174591064453125 2.5417020320892334 4.16956186294555664
-37.58428955078125 2.5417020320892334 3.64092922210693359
-37.8150787353515625 2.5417020320892334 3.65577840805053711
-37.8244667053222656 2.5417020320892334 3.54361176490783691
-37.2029495239257812 2.5417020320892334 3.8437800407409668
-36.5911140441894531 2.5417020320892334 4.16770029067993164
-39.2017288208007812 2.5417020320892334 2.90834546089172363
-39.3426895141601562 2.5417020320892334 2.91721749305725098
-37.5718154907226562 2.5417020320892334 3.75612950325012207
-38.5489044189453125 2.50767135620117188 2.95463299751281738
-39.4370269775390625 2.50168704986572266 2.44225430488586426
-38.357635498046875 2.50815510749816895 3.06498003005981445
-38.6189041137695312 2.50598955154418945 2.91425013542175293
-38.3302879333496094 2.49587059020996094 3.08075952529907227
-38.49749755859375 2.50568890571594238 2.98429107666015625
-39.6104545593261719 2.49376296997070312 2.34220147132873535
-38.1265525817871094 2.50261092185974121 3.19829845428466797
-40.1176338195800781 2.52337098121643066 2.04959726333618164
-39.2430191040039062 2.51584148406982422 2.55418229103088379
-40.3646049499511719 2.51627635955810547 1.90711379051208496
-37.7303619384765625 2.49660253524780273 3.42686915397644043
-39.0006179809570312 2.50234532356262207 2.69403076171875
-38.4195671081542969 2.50194096565246582 3.02924919128417969
